# .PCD v0.7 - Point Cloud Data file format
VERSION 0.7
FIELDS x y z
SIZE 4 4 4
TYPE F F F
COUNT 1 1 1
WIDTH 1829
HEIGHT 1
VIEWPOINT 0 0 0 1 0 0 0
POINTS 1829
DATA ascii
-3.0899999 8.3100004 -1.04
-3.0899999 8.3100004 -0.94
-3.0899999 8.3100004 -0.83999997
-3.0899999 8.3100004 -0.74000001
-3.0899999 8.3100004 -0.63999999
-3.0899999 8.3100004 -0.54000002
-3.0899999 8.3100004 -0.44
-3.0899999 8.3100004 -0.34
-3.0899999 8.3100004 -0.23999999
-3.0899999 8.3100004 -0.14
-3.0899999 8.3100004 -0.039999999
-3.0899999 8.3100004 0.059999999
-3.0899999 8.3100004 0.16
-3.0899999 8.3100004 0.25999999
-3.0899999 8.3100004 0.36000001
-3.0899999 8.3100004 0.46000001
-3.0899999 8.3100004 0.56
-3.0899999 8.3100004 0.66000003
-3.0899999 8.3100004 0.75999999
-3.0899999 8.3100004 0.86000001
-3.0899999 8.3100004 0.95999998
-3.0899999 8.3100004 1.0599999
-3.0899999 8.3100004 1.16
-3.0899999 8.3100004 1.26
-3.0899999 8.3100004 1.36
-3.0899999 8.3100004 1.46
-3.0899999 8.4099998 -2.9400001
-3.0899999 8.4099998 -2.8399999
-3.0899999 8.4099998 -2.74
-3.0899999 8.4099998 -2.6400001
-3.0899999 8.4099998 -2.54
-3.0899999 8.4099998 -2.4400001
-3.0899999 8.4099998 -2.3399999
-3.0899999 8.4099998 -2.24
-3.0899999 8.4099998 -2.1400001
-3.0899999 8.4099998 -2.04
-3.0899999 8.4099998 -1.9400001
-3.0899999 8.4099998 -1.84
-3.0899999 8.4099998 -1.74
-3.0899999 8.4099998 -1.64
-3.0899999 8.4099998 -1.54
-3.0899999 8.4099998 -1.4400001
-3.0899999 8.4099998 -1.34
-3.0899999 8.4099998 -1.24
-3.0899999 8.4099998 -1.14
-3.0899999 8.4099998 -1.04
-3.0899999 8.4099998 -0.94
-3.0899999 8.4099998 -0.83999997
-3.0899999 8.4099998 -0.74000001
-3.0899999 8.4099998 -0.63999999
-3.0899999 8.4099998 -0.54000002
-3.0899999 8.4099998 -0.44
-3.0899999 8.4099998 -0.34
-3.0899999 8.4099998 -0.23999999
-3.0899999 8.4099998 -0.14
-3.0899999 8.4099998 -0.039999999
-3.0899999 8.4099998 0.059999999
-3.0899999 8.4099998 0.16
-3.0899999 8.4099998 0.25999999
-3.0899999 8.4099998 0.36000001
-3.0899999 8.4099998 0.46000001
-3.0899999 8.4099998 0.56
-3.0899999 8.4099998 0.66000003
-3.0899999 8.4099998 0.75999999
-3.0899999 8.4099998 0.86000001
-3.0899999 8.4099998 0.95999998
-3.0899999 8.4099998 1.0599999
-3.0899999 8.5100002 -2.9400001
-3.0899999 8.5100002 -2.8399999
-3.0899999 8.5100002 -2.74
-3.0899999 8.5100002 -2.6400001
-3.0899999 8.5100002 -2.54
-3.0899999 8.5100002 -2.4400001
-3.0899999 8.5100002 -2.3399999
-3.0899999 8.5100002 -2.24
-3.0899999 8.5100002 -2.1400001
-3.0899999 8.5100002 -2.04
-3.0899999 8.5100002 -1.9400001
-3.0899999 8.5100002 -1.84
-3.0899999 8.5100002 -1.74
-3.0899999 8.5100002 -1.64
-3.0899999 8.5100002 -1.54
-3.0899999 8.5100002 -1.4400001
-3.0899999 8.5100002 -1.34
-3.0899999 8.5100002 -1.24
-3.0899999 8.5100002 -1.14
-3.0899999 8.5100002 -1.04
-3.0899999 8.5100002 -0.94
-3.0899999 8.5100002 -0.83999997
-3.0899999 8.5100002 -0.74000001
-3.0899999 8.5100002 -0.63999999
-3.0899999 8.5100002 -0.54000002
-3.0899999 8.5100002 -0.44
-3.0899999 8.5100002 -0.34
-3.0899999 8.5100002 -0.23999999
-3.0899999 8.5100002 -0.14
-3.0899999 8.5100002 -0.039999999
-3.0899999 8.5100002 0.059999999
-3.0899999 8.5100002 0.16
-3.0899999 8.5100002 0.25999999
-3.0899999 8.5100002 0.36000001
-3.0899999 8.5100002 0.46000001
-3.0899999 8.5100002 0.56
-3.0899999 8.5100002 0.66000003
-3.0899999 8.5100002 0.75999999
-3.0899999 8.5100002 0.86000001
-3.0899999 8.5100002 0.95999998
-3.0899999 8.5100002 1.0599999
-3.0899999 8.5100002 1.16
-3.0899999 8.5100002 1.26
-3.0899999 8.5100002 1.36
-3.0899999 8.5100002 1.46
-3.0899999 8.5100002 1.5599999
-3.0899999 8.5100002 1.66
-3.0899999 8.5100002 1.76
-3.0899999 8.5100002 1.86
-3.0899999 8.5100002 1.96
-3.0899999 8.5100002 2.0599999
-3.0899999 8.5100002 2.1600001
-3.0899999 8.5100002 2.26
-3.0899999 8.5100002 2.3599999
-3.0899999 8.5100002 2.46
-3.0899999 8.5100002 2.5599999
-3.0899999 8.5100002 2.6600001
-3.0899999 8.6099997 -2.9400001
-3.0899999 8.6099997 -2.8399999
-3.0899999 8.6099997 -2.74
-3.0899999 8.6099997 -2.6400001
-3.0899999 8.6099997 -2.54
-3.0899999 8.6099997 -2.4400001
-3.0899999 8.6099997 -2.3399999
-3.0899999 8.6099997 -2.24
-3.0899999 8.6099997 -2.1400001
-3.0899999 8.6099997 -2.04
-3.0899999 8.6099997 -1.9400001
-3.0899999 8.6099997 -1.84
-3.0899999 8.6099997 -1.74
-3.0899999 8.6099997 -1.64
-3.0899999 8.6099997 -1.54
-3.0899999 8.6099997 -1.4400001
-3.0899999 8.6099997 -1.34
-3.0899999 8.6099997 -1.24
-3.0899999 8.6099997 -1.14
-3.0899999 8.6099997 -1.04
-3.0899999 8.6099997 -0.94
-3.0899999 8.6099997 -0.83999997
-3.0899999 8.6099997 -0.74000001
-3.0899999 8.6099997 -0.63999999
-3.0899999 8.6099997 -0.54000002
-3.0899999 8.6099997 -0.44
-3.0899999 8.6099997 -0.34
-3.0899999 8.6099997 -0.23999999
-3.0899999 8.6099997 -0.14
-3.0899999 8.6099997 -0.039999999
-3.0899999 8.6099997 0.059999999
-3.0899999 8.6099997 0.16
-3.0899999 8.6099997 0.25999999
-3.0899999 8.6099997 0.36000001
-3.0899999 8.6099997 0.46000001
-3.0899999 8.6099997 0.56
-3.0899999 8.6099997 0.66000003
-3.0899999 8.6099997 0.75999999
-3.0899999 8.6099997 0.86000001
-3.0899999 8.6099997 0.95999998
-3.0899999 8.6099997 1.0599999
-3.0899999 8.6099997 1.16
-3.0899999 8.6099997 1.26
-3.0899999 8.6099997 1.36
-3.0899999 8.6099997 1.46
-3.0899999 8.6099997 1.5599999
-3.0899999 8.6099997 1.66
-3.0899999 8.6099997 1.76
-3.0899999 8.6099997 1.86
-3.0899999 8.6099997 1.96
-3.0899999 8.6099997 2.0599999
-3.0899999 8.6099997 2.1600001
-3.0899999 8.6099997 2.26
-3.0899999 8.6099997 2.3599999
-3.0899999 8.6099997 2.46
-3.0899999 8.6099997 2.5599999
-3.0899999 8.6099997 2.6600001
-3.0899999 8.6099997 2.76
-3.0899999 8.6099997 2.8599999
-3.0899999 8.71 -2.9400001
-3.0899999 8.71 -2.8399999
-3.0899999 8.71 -2.74
-3.0899999 8.71 -2.6400001
-3.0899999 8.71 -2.54
-3.0899999 8.71 -2.4400001
-3.0899999 8.71 -2.3399999
-3.0899999 8.71 -2.24
-3.0899999 8.71 -2.1400001
-3.0899999 8.71 -2.04
-3.0899999 8.71 -1.9400001
-3.0899999 8.71 -1.84
-3.0899999 8.71 -1.74
-3.0899999 8.71 -1.64
-3.0899999 8.71 -1.54
-3.0899999 8.71 -1.4400001
-3.0899999 8.71 -1.34
-3.0899999 8.71 -1.24
-3.0899999 8.71 -1.14
-3.0899999 8.71 -1.04
-3.0899999 8.71 -0.94
-3.0899999 8.71 -0.83999997
-3.0899999 8.71 -0.74000001
-3.0899999 8.71 -0.63999999
-3.0899999 8.71 -0.54000002
-3.0899999 8.71 -0.44
-3.0899999 8.71 -0.34
-3.0899999 8.71 -0.23999999
-3.0899999 8.71 -0.14
-3.0899999 8.71 -0.039999999
-3.0899999 8.71 0.059999999
-3.0899999 8.71 0.16
-3.0899999 8.71 0.25999999
-3.0899999 8.71 0.36000001
-3.0899999 8.71 0.46000001
-3.0899999 8.71 0.56
-3.0899999 8.71 0.66000003
-3.0899999 8.71 0.75999999
-3.0899999 8.71 0.86000001
-3.0899999 8.71 0.95999998
-3.0899999 8.71 1.0599999
-3.0899999 8.71 1.16
-3.0899999 8.71 1.26
-3.0899999 8.71 1.36
-3.0899999 8.71 1.46
-3.0899999 8.71 1.5599999
-3.0899999 8.71 1.66
-3.0899999 8.71 1.76
-3.0899999 8.71 1.86
-3.0899999 8.8100004 -2.9400001
-3.0899999 8.8100004 -2.8399999
-3.0899999 8.8100004 -2.74
-3.0899999 8.8100004 -2.6400001
-3.0899999 8.8100004 -2.54
-3.0899999 8.8100004 -2.4400001
-3.0899999 8.8100004 -2.3399999
-3.0899999 8.8100004 -2.24
-3.0899999 8.8100004 -2.1400001
-3.0899999 8.8100004 -2.04
-3.0899999 8.8100004 -1.9400001
-3.0899999 8.8100004 -1.84
-3.0899999 8.8100004 -1.74
-3.0899999 8.8100004 -1.64
-3.0899999 8.8100004 -1.54
-3.0899999 8.8100004 -1.4400001
-3.0899999 8.8100004 -1.34
-3.0899999 8.8100004 -1.24
-3.0899999 8.8100004 -1.14
-3.0899999 8.8100004 -1.04
-3.0899999 8.8100004 -0.94
-3.0899999 8.8100004 -0.83999997
-3.0899999 8.8100004 -0.74000001
-3.0899999 8.8100004 -0.63999999
-3.0899999 8.8100004 -0.54000002
-3.0899999 8.8100004 -0.44
-3.0899999 8.8100004 -0.34
-3.0899999 8.8100004 -0.23999999
-3.0899999 8.8100004 -0.14
-3.0899999 8.8100004 -0.039999999
-3.0899999 8.8100004 0.059999999
-3.0899999 8.8100004 0.16
-3.0899999 8.8100004 0.25999999
-3.0899999 8.8100004 0.36000001
-3.0899999 8.8100004 0.46000001
-3.0899999 8.8100004 0.56
-3.0899999 8.8100004 0.66000003
-3.0899999 8.8100004 0.75999999
-3.0899999 8.8100004 0.86000001
-3.0899999 8.8100004 0.95999998
-3.0899999 8.8100004 1.0599999
-3.0899999 8.8100004 1.16
-3.0899999 8.8100004 1.26
-3.0899999 8.8100004 1.36
-3.0899999 8.8100004 1.46
-3.0899999 8.8100004 1.5599999
-3.0899999 8.8100004 1.66
-3.0899999 8.8100004 1.76
-3.0899999 8.8100004 1.86
-3.0899999 8.8100004 1.96
-3.0899999 8.8100004 2.0599999
-3.0899999 8.8100004 2.1600001
-3.0899999 8.9099998 -2.9400001
-3.0899999 8.9099998 -2.8399999
-3.0899999 8.9099998 -2.74
-3.0899999 8.9099998 -2.6400001
-3.0899999 8.9099998 -2.54
-3.0899999 8.9099998 -2.4400001
-3.0899999 8.9099998 -2.3399999
-3.0899999 8.9099998 -2.24
-3.0899999 8.9099998 -2.1400001
-3.0899999 8.9099998 -2.04
-3.0899999 8.9099998 -1.9400001
-3.0899999 8.9099998 -1.84
-3.0899999 8.9099998 -1.74
-3.0899999 8.9099998 -1.64
-3.0899999 8.9099998 -1.54
-3.0899999 8.9099998 -1.4400001
-3.0899999 8.9099998 -1.34
-3.0899999 8.9099998 -1.24
-3.0899999 8.9099998 -1.14
-3.0899999 8.9099998 -1.04
-3.0899999 8.9099998 -0.94
-3.0899999 8.9099998 -0.83999997
-3.0899999 8.9099998 -0.74000001
-3.0899999 8.9099998 -0.63999999
-3.0899999 8.9099998 -0.54000002
-3.0899999 8.9099998 -0.44
-3.0899999 8.9099998 -0.34
-3.0899999 8.9099998 -0.23999999
-3.0899999 8.9099998 -0.14
-3.0899999 8.9099998 -0.039999999
-3.0899999 8.9099998 0.059999999
-3.0899999 8.9099998 0.16
-3.0899999 8.9099998 0.25999999
-3.0899999 8.9099998 0.36000001
-3.0899999 8.9099998 0.46000001
-3.0899999 8.9099998 0.56
-3.0899999 8.9099998 0.66000003
-3.0899999 8.9099998 0.75999999
-3.0899999 8.9099998 0.86000001
-3.0899999 8.9099998 0.95999998
-3.0899999 8.9099998 1.0599999
-3.0899999 9.0100002 -2.9400001
-3.0899999 9.0100002 -2.8399999
-3.0899999 9.0100002 -2.74
-3.0899999 9.0100002 -2.6400001
-3.0899999 9.0100002 -2.54
-3.0899999 9.0100002 -2.4400001
-3.0899999 9.0100002 -2.3399999
-3.0899999 9.0100002 -2.24
-3.0899999 9.0100002 -2.1400001
-3.0899999 9.0100002 -2.04
-3.0899999 9.0100002 -1.9400001
-3.0899999 9.0100002 -1.84
-3.0899999 9.0100002 -1.74
-3.0899999 9.0100002 -1.64
-3.0899999 9.0100002 -1.54
-3.0899999 9.0100002 -1.4400001
-3.0899999 9.0100002 -1.34
-3.0899999 9.0100002 -1.24
-3.0899999 9.0100002 -1.14
-3.0899999 9.0100002 -1.04
-3.0899999 9.0100002 -0.94
-3.0899999 9.0100002 -0.83999997
-3.0899999 9.0100002 -0.74000001
-3.0899999 9.0100002 -0.63999999
-3.0899999 9.0100002 -0.54000002
-3.0899999 9.0100002 -0.44
-3.0899999 9.0100002 -0.34
-3.0899999 9.0100002 -0.23999999
-3.0899999 9.0100002 -0.14
-3.0899999 9.0100002 -0.039999999
-3.0899999 9.0100002 0.059999999
-3.0899999 9.0100002 0.16
-3.0899999 9.0100002 0.25999999
-3.0899999 9.0100002 0.36000001
-3.0899999 9.0100002 0.46000001
-3.0899999 9.0100002 0.56
-3.0899999 9.0100002 0.66000003
-3.0899999 9.0100002 0.75999999
-3.0899999 9.0100002 0.86000001
-3.0899999 9.0100002 0.95999998
-3.0899999 9.0100002 1.0599999
-3.0899999 9.0100002 1.16
-3.0899999 9.0100002 1.26
-3.0899999 9.0100002 1.36
-3.0899999 9.0100002 1.46
-3.0899999 9.0100002 1.5599999
-3.0899999 9.0100002 1.66
-3.0899999 9.0100002 1.76
-3.0899999 9.0100002 1.86
-3.0899999 9.0100002 1.96
-2.99 8.1099997 -2.9400001
-2.99 8.1099997 -2.8399999
-2.99 8.1099997 -2.74
-2.99 8.1099997 -2.6400001
-2.99 8.1099997 -2.54
-2.99 8.1099997 -2.4400001
-2.99 8.1099997 -2.3399999
-2.99 8.1099997 -2.24
-2.99 8.1099997 -2.1400001
-2.99 8.1099997 -2.04
-2.99 8.1099997 -1.9400001
-2.99 8.1099997 -1.84
-2.99 8.1099997 -1.74
-2.99 8.1099997 -1.64
-2.99 8.1099997 -1.54
-2.99 8.1099997 -1.4400001
-2.99 8.1099997 -1.34
-2.99 8.1099997 -1.24
-2.99 8.1099997 -1.14
-2.99 8.1099997 -1.04
-2.99 8.1099997 -0.94
-2.99 8.1099997 -0.83999997
-2.99 8.1099997 -0.74000001
-2.99 8.1099997 -0.63999999
-2.99 8.1099997 -0.54000002
-2.99 8.1099997 -0.44
-2.99 8.1099997 -0.34
-2.99 8.1099997 -0.23999999
-2.99 8.1099997 -0.14
-2.99 8.1099997 -0.039999999
-2.99 8.1099997 0.059999999
-2.99 8.1099997 0.16
-2.99 8.1099997 0.25999999
-2.99 8.1099997 0.36000001
-2.99 8.1099997 0.46000001
-2.99 8.1099997 0.56
-2.99 8.1099997 0.66000003
-2.99 8.1099997 0.75999999
-2.99 8.21 -2.9400001
-2.99 8.21 -2.8399999
-2.99 8.21 -2.74
-2.99 8.21 -2.6400001
-2.99 8.21 -2.54
-2.99 8.21 -2.4400001
-2.99 8.21 -2.3399999
-2.99 8.21 -2.24
-2.99 8.21 -2.1400001
-2.99 8.21 -2.04
-2.99 8.21 -1.9400001
-2.99 8.21 -1.84
-2.99 8.21 -1.74
-2.99 8.21 -1.64
-2.99 8.21 -1.54
-2.99 8.21 -1.4400001
-2.99 8.21 -1.34
-2.99 8.21 -1.24
-2.99 8.21 -1.14
-2.99 8.21 -1.04
-2.99 8.21 -0.94
-2.99 8.21 -0.83999997
-2.99 8.21 -0.74000001
-2.99 8.21 -0.63999999
-2.99 8.21 -0.54000002
-2.99 8.21 -0.44
-2.99 8.21 -0.34
-2.99 8.21 -0.23999999
-2.99 8.21 -0.14
-2.99 8.21 -0.039999999
-2.99 8.21 0.059999999
-2.99 8.21 0.16
-2.99 8.21 0.25999999
-2.99 8.21 0.36000001
-2.99 8.21 0.46000001
-2.99 8.21 0.56
-2.99 8.21 0.66000003
-2.99 8.21 0.75999999
-2.99 8.21 0.86000001
-2.99 8.21 0.95999998
-2.99 8.21 1.0599999
-2.99 8.21 1.16
-2.99 8.21 1.26
-2.99 8.21 1.36
-2.99 8.21 1.46
-2.99 8.21 1.5599999
-2.99 8.21 1.66
-2.99 8.3100004 -2.9400001
-2.99 8.3100004 -2.8399999
-2.99 8.3100004 -2.74
-2.99 8.3100004 -2.6400001
-2.99 8.3100004 -2.54
-2.99 8.3100004 -2.4400001
-2.99 8.3100004 -2.3399999
-2.99 8.3100004 -2.24
-2.99 8.3100004 -2.1400001
-2.99 8.3100004 -2.04
-2.99 8.3100004 -1.9400001
-2.99 8.3100004 -1.84
-2.99 8.3100004 -1.74
-2.99 8.3100004 -1.64
-2.99 8.3100004 -1.54
-2.99 8.3100004 -1.4400001
-2.99 8.3100004 -1.34
-2.99 8.3100004 -1.24
-2.99 8.3100004 -1.14
-2.99 8.3100004 -1.04
-2.99 8.3100004 -0.94
-2.99 8.3100004 -0.83999997
-2.99 8.3100004 -0.74000001
-2.99 8.3100004 -0.63999999
-2.99 8.3100004 -0.54000002
-2.99 8.3100004 -0.44
-2.99 8.3100004 -0.34
-2.99 8.3100004 -0.23999999
-2.99 8.3100004 -0.14
-2.99 8.3100004 -0.039999999
-2.99 8.3100004 0.059999999
-2.99 8.3100004 0.16
-2.99 8.3100004 0.25999999
-2.99 8.3100004 0.36000001
-2.99 8.3100004 0.46000001
-2.99 8.3100004 0.56
-2.99 8.3100004 0.66000003
-2.99 8.4099998 -2.9400001
-2.99 8.4099998 -2.8399999
-2.99 8.4099998 -2.74
-2.99 8.4099998 -2.6400001
-2.99 8.4099998 -2.54
-2.99 8.4099998 -2.4400001
-2.99 8.4099998 -2.3399999
-2.99 8.4099998 -2.24
-2.99 8.4099998 -2.1400001
-2.99 8.4099998 -2.04
-2.99 8.4099998 -1.9400001
-2.99 8.4099998 -1.84
-2.99 8.4099998 -1.74
-2.99 8.4099998 -1.64
-2.99 8.4099998 -1.54
-2.99 8.4099998 -1.4400001
-2.99 8.4099998 -1.34
-2.99 8.4099998 -1.24
-2.99 8.4099998 -1.14
-2.99 8.4099998 -1.04
-2.99 8.4099998 -0.94
-2.99 8.4099998 -0.83999997
-2.99 8.4099998 -0.74000001
-2.99 8.4099998 -0.63999999
-2.99 8.4099998 -0.54000002
-2.99 8.4099998 -0.44
-2.99 8.4099998 -0.34
-2.99 8.4099998 -0.23999999
-2.99 8.4099998 -0.14
-2.99 8.4099998 -0.039999999
-2.99 8.4099998 0.059999999
-2.99 8.4099998 0.16
-2.99 8.4099998 0.25999999
-2.99 8.4099998 0.36000001
-2.99 8.4099998 0.46000001
-2.99 8.4099998 0.56
-2.99 8.4099998 0.66000003
-2.99 8.4099998 0.75999999
-2.99 8.4099998 0.86000001
-2.99 8.4099998 0.95999998
-2.99 8.4099998 1.0599999
-2.99 8.4099998 1.16
-2.99 8.4099998 1.26
-2.99 8.4099998 1.36
-2.99 8.4099998 1.46
-2.99 8.4099998 1.5599999
-2.99 8.4099998 1.66
-2.99 8.4099998 1.76
-2.99 8.4099998 1.86
-2.99 8.4099998 1.96
-2.99 8.4099998 2.0599999
-2.99 8.4099998 2.1600001
-2.99 8.4099998 2.26
-2.99 8.5100002 -2.9400001
-2.99 8.5100002 -2.8399999
-2.99 8.5100002 -2.74
-2.99 8.5100002 -2.6400001
-2.99 8.5100002 -2.54
-2.99 8.5100002 -2.4400001
-2.99 8.5100002 -2.3399999
-2.99 8.5100002 -2.24
-2.99 8.5100002 -2.1400001
-2.99 8.5100002 -2.04
-2.99 8.5100002 -1.9400001
-2.99 8.5100002 -1.84
-2.99 8.5100002 -1.74
-2.99 8.5100002 -1.64
-2.99 8.5100002 -1.54
-2.99 8.5100002 -1.4400001
-2.99 8.5100002 -1.34
-2.99 8.5100002 -1.24
-2.99 8.5100002 -1.14
-2.99 8.5100002 -1.04
-2.99 8.5100002 -0.94
-2.99 8.5100002 -0.83999997
-2.99 8.5100002 -0.74000001
-2.99 8.5100002 -0.63999999
-2.99 8.5100002 -0.54000002
-2.99 8.5100002 -0.44
-2.99 8.5100002 -0.34
-2.99 8.5100002 -0.23999999
-2.99 8.5100002 -0.14
-2.99 8.5100002 -0.039999999
-2.99 8.5100002 0.059999999
-2.99 8.5100002 0.16
-2.99 8.5100002 0.25999999
-2.99 8.5100002 0.36000001
-2.99 8.5100002 0.46000001
-2.99 8.5100002 0.56
-2.99 8.5100002 0.66000003
-2.99 8.5100002 0.75999999
-2.99 8.5100002 0.86000001
-2.99 8.5100002 0.95999998
-2.99 8.5100002 1.0599999
-2.99 8.5100002 1.16
-2.99 8.5100002 1.26
-2.99 8.5100002 1.36
-2.99 8.5100002 1.46
-2.99 8.5100002 1.5599999
-2.99 8.5100002 1.66
-2.99 8.5100002 1.76
-2.99 8.5100002 1.86
-2.99 8.5100002 1.96
-2.99 8.5100002 2.0599999
-2.99 8.5100002 2.1600001
-2.99 8.5100002 2.26
-2.99 8.5100002 2.3599999
-2.99 8.6099997 -2.9400001
-2.99 8.6099997 -2.8399999
-2.99 8.6099997 -2.74
-2.99 8.6099997 -2.6400001
-2.99 8.6099997 -2.54
-2.99 8.6099997 -2.4400001
-2.99 8.6099997 -2.3399999
-2.99 8.6099997 -2.24
-2.99 8.6099997 -2.1400001
-2.99 8.6099997 -2.04
-2.99 8.6099997 -1.9400001
-2.99 8.6099997 -1.84
-2.99 8.6099997 -1.74
-2.99 8.6099997 -1.64
-2.99 8.6099997 -1.54
-2.99 8.6099997 -1.4400001
-2.99 8.6099997 -1.34
-2.99 8.6099997 -1.24
-2.99 8.6099997 -1.14
-2.99 8.6099997 -1.04
-2.99 8.6099997 -0.94
-2.99 8.6099997 -0.83999997
-2.99 8.6099997 -0.74000001
-2.99 8.6099997 -0.63999999
-2.99 8.6099997 -0.54000002
-2.99 8.6099997 -0.44
-2.99 8.6099997 -0.34
-2.99 8.6099997 -0.23999999
-2.99 8.6099997 -0.14
-2.99 8.6099997 -0.039999999
-2.99 8.6099997 0.059999999
-2.99 8.6099997 0.16
-2.99 8.71 -2.9400001
-2.99 8.71 -2.8399999
-2.99 8.71 -2.74
-2.99 8.71 -2.6400001
-2.99 8.71 -2.54
-2.99 8.71 -2.4400001
-2.99 8.71 -2.3399999
-2.99 8.71 -2.24
-2.99 8.71 -2.1400001
-2.99 8.71 -2.04
-2.99 8.71 -1.9400001
-2.99 8.71 -1.84
-2.99 8.71 -1.74
-2.99 8.71 -1.64
-2.99 8.71 -1.54
-2.99 8.71 -1.4400001
-2.99 8.71 -1.34
-2.99 8.71 -1.24
-2.99 8.71 -1.14
-2.99 8.71 -1.04
-2.99 8.71 -0.94
-2.99 8.71 -0.83999997
-2.99 8.71 -0.74000001
-2.99 8.71 -0.63999999
-2.99 8.71 -0.54000002
-2.99 8.71 -0.44
-2.99 8.71 -0.34
-2.99 8.71 -0.23999999
-2.99 8.71 -0.14
-2.99 8.71 -0.039999999
-2.99 8.71 0.059999999
-2.99 8.71 0.16
-2.99 8.71 0.25999999
-2.99 8.71 0.36000001
-2.99 8.71 0.46000001
-2.99 8.71 0.56
-2.99 8.71 0.66000003
-2.99 8.71 0.75999999
-2.99 8.71 0.86000001
-2.99 8.71 0.95999998
-2.99 8.71 1.0599999
-2.99 8.71 1.16
-2.99 8.71 1.26
-2.99 8.71 1.36
-2.99 8.8100004 -2.9400001
-2.99 8.8100004 -2.8399999
-2.99 8.8100004 -2.74
-2.99 8.8100004 -2.6400001
-2.99 8.8100004 -2.54
-2.99 8.8100004 -2.4400001
-2.99 8.8100004 -2.3399999
-2.99 8.8100004 -2.24
-2.99 8.8100004 -2.1400001
-2.99 8.8100004 -2.04
-2.99 8.8100004 -1.9400001
-2.99 8.8100004 -1.84
-2.99 8.8100004 -1.74
-2.99 8.8100004 -1.64
-2.99 8.8100004 -1.54
-2.99 8.8100004 -1.4400001
-2.99 8.8100004 -1.34
-2.99 8.8100004 -1.24
-2.99 8.8100004 -1.14
-2.99 8.8100004 -1.04
-2.99 8.8100004 -0.94
-2.99 8.8100004 -0.83999997
-2.99 8.8100004 -0.74000001
-2.99 8.8100004 -0.63999999
-2.99 8.8100004 -0.54000002
-2.99 8.8100004 -0.44
-2.99 8.8100004 -0.34
-2.99 8.8100004 -0.23999999
-2.99 8.8100004 -0.14
-2.99 8.8100004 -0.039999999
-2.99 8.8100004 0.059999999
-2.99 8.8100004 0.16
-2.99 8.8100004 0.25999999
-2.99 8.8100004 0.36000001
-2.99 8.8100004 0.46000001
-2.99 8.8100004 0.56
-2.99 8.8100004 0.66000003
-2.99 8.8100004 0.75999999
-2.99 8.8100004 0.86000001
-2.99 8.8100004 0.95999998
-2.99 8.8100004 1.0599999
-2.99 8.9099998 -2.9400001
-2.99 8.9099998 -2.8399999
-2.99 8.9099998 -2.74
-2.99 8.9099998 -2.6400001
-2.99 8.9099998 -2.54
-2.99 8.9099998 -2.4400001
-2.99 8.9099998 -2.3399999
-2.99 8.9099998 -2.24
-2.99 8.9099998 -2.1400001
-2.99 8.9099998 -2.04
-2.99 8.9099998 -1.9400001
-2.99 8.9099998 -1.84
-2.99 8.9099998 -1.74
-2.99 8.9099998 -1.64
-2.99 8.9099998 -1.54
-2.99 8.9099998 -1.4400001
-2.99 8.9099998 -1.34
-2.99 8.9099998 -1.24
-2.99 8.9099998 -1.14
-2.99 8.9099998 -1.04
-2.99 8.9099998 -0.94
-2.99 8.9099998 -0.83999997
-2.99 8.9099998 -0.74000001
-2.99 8.9099998 -0.63999999
-2.99 8.9099998 -0.54000002
-2.99 8.9099998 -0.44
-2.99 8.9099998 -0.34
-2.99 8.9099998 -0.23999999
-2.99 8.9099998 -0.14
-2.99 8.9099998 -0.039999999
-2.99 8.9099998 0.059999999
-2.99 8.9099998 0.16
-2.99 8.9099998 0.25999999
-2.99 8.9099998 0.36000001
-2.99 8.9099998 0.46000001
-2.99 8.9099998 0.56
-2.99 8.9099998 0.66000003
-2.99 8.9099998 0.75999999
-2.99 8.9099998 0.86000001
-2.99 9.0100002 -2.9400001
-2.99 9.0100002 -2.8399999
-2.99 9.0100002 -2.74
-2.99 9.0100002 -2.6400001
-2.99 9.0100002 -2.54
-2.99 9.0100002 -2.4400001
-2.99 9.0100002 -2.3399999
-2.99 9.0100002 -2.24
-2.99 9.0100002 -2.1400001
-2.99 9.0100002 -2.04
-2.99 9.0100002 -1.9400001
-2.99 9.0100002 -1.84
-2.99 9.0100002 -1.74
-2.99 9.0100002 -1.64
-2.99 9.0100002 -1.54
-2.99 9.0100002 -1.4400001
-2.99 9.0100002 -1.34
-2.99 9.0100002 -1.24
-2.99 9.0100002 -1.14
-2.99 9.0100002 -1.04
-2.99 9.0100002 -0.94
-2.99 9.0100002 -0.83999997
-2.99 9.0100002 -0.74000001
-2.99 9.0100002 -0.63999999
-2.99 9.0100002 -0.54000002
-2.99 9.0100002 -0.44
-2.99 9.0100002 -0.34
-2.99 9.0100002 -0.23999999
-2.99 9.0100002 -0.14
-2.99 9.0100002 -0.039999999
-2.99 9.0100002 0.059999999
-2.99 9.0100002 0.16
-2.99 9.0100002 0.25999999
-2.99 9.0100002 0.36000001
-2.99 9.0100002 0.46000001
-2.99 9.0100002 0.56
-2.8900001 8.1099997 -2.9400001
-2.8900001 8.1099997 -2.8399999
-2.8900001 8.1099997 -2.74
-2.8900001 8.1099997 -2.6400001
-2.8900001 8.1099997 -2.54
-2.8900001 8.1099997 -2.4400001
-2.8900001 8.1099997 -2.3399999
-2.8900001 8.1099997 -2.24
-2.8900001 8.1099997 -2.1400001
-2.8900001 8.1099997 -2.04
-2.8900001 8.1099997 -1.9400001
-2.8900001 8.1099997 -1.84
-2.8900001 8.1099997 -1.74
-2.8900001 8.1099997 -1.64
-2.8900001 8.1099997 -1.54
-2.8900001 8.1099997 -1.4400001
-2.8900001 8.1099997 -1.34
-2.8900001 8.1099997 -1.24
-2.8900001 8.1099997 -1.14
-2.8900001 8.1099997 -1.04
-2.8900001 8.1099997 -0.94
-2.8900001 8.1099997 -0.83999997
-2.8900001 8.1099997 -0.74000001
-2.8900001 8.1099997 -0.63999999
-2.8900001 8.1099997 -0.54000002
-2.8900001 8.1099997 -0.44
-2.8900001 8.1099997 -0.34
-2.8900001 8.1099997 -0.23999999
-2.8900001 8.1099997 -0.14
-2.8900001 8.1099997 -0.039999999
-2.8900001 8.1099997 0.059999999
-2.8900001 8.21 -2.9400001
-2.8900001 8.21 -2.8399999
-2.8900001 8.21 -2.74
-2.8900001 8.21 -2.6400001
-2.8900001 8.21 -2.54
-2.8900001 8.21 -2.4400001
-2.8900001 8.21 -2.3399999
-2.8900001 8.21 -2.24
-2.8900001 8.21 -2.1400001
-2.8900001 8.21 -2.04
-2.8900001 8.21 -1.9400001
-2.8900001 8.21 -1.84
-2.8900001 8.21 -1.74
-2.8900001 8.21 -1.64
-2.8900001 8.21 -1.54
-2.8900001 8.21 -1.4400001
-2.8900001 8.21 -1.34
-2.8900001 8.21 -1.24
-2.8900001 8.21 -1.14
-2.8900001 8.21 -1.04
-2.8900001 8.21 -0.94
-2.8900001 8.21 -0.83999997
-2.8900001 8.21 -0.74000001
-2.8900001 8.21 -0.63999999
-2.8900001 8.21 -0.54000002
-2.8900001 8.21 -0.44
-2.8900001 8.21 -0.34
-2.8900001 8.21 -0.23999999
-2.8900001 8.21 -0.14
-2.8900001 8.21 -0.039999999
-2.8900001 8.21 0.059999999
-2.8900001 8.21 0.16
-2.8900001 8.21 0.25999999
-2.8900001 8.21 0.36000001
-2.8900001 8.21 0.46000001
-2.8900001 8.21 0.56
-2.8900001 8.21 0.66000003
-2.8900001 8.21 0.75999999
-2.8900001 8.3100004 -2.9400001
-2.8900001 8.3100004 -2.8399999
-2.8900001 8.3100004 -2.74
-2.8900001 8.3100004 -2.6400001
-2.8900001 8.3100004 -2.54
-2.8900001 8.3100004 -2.4400001
-2.8900001 8.3100004 -2.3399999
-2.8900001 8.3100004 -2.24
-2.8900001 8.3100004 -2.1400001
-2.8900001 8.3100004 -2.04
-2.8900001 8.3100004 -1.9400001
-2.8900001 8.3100004 -1.84
-2.8900001 8.3100004 -1.74
-2.8900001 8.3100004 -1.64
-2.8900001 8.3100004 -1.54
-2.8900001 8.3100004 -1.4400001
-2.8900001 8.3100004 -1.34
-2.8900001 8.3100004 -1.24
-2.8900001 8.3100004 -1.14
-2.8900001 8.3100004 -1.04
-2.8900001 8.3100004 -0.94
-2.8900001 8.3100004 -0.83999997
-2.8900001 8.3100004 -0.74000001
-2.8900001 8.3100004 -0.63999999
-2.8900001 8.3100004 -0.54000002
-2.8900001 8.3100004 -0.44
-2.8900001 8.3100004 -0.34
-2.8900001 8.3100004 -0.23999999
-2.8900001 8.3100004 -0.14
-2.8900001 8.3100004 -0.039999999
-2.8900001 8.3100004 0.059999999
-2.8900001 8.3100004 0.16
-2.8900001 8.3100004 0.25999999
-2.8900001 8.3100004 0.36000001
-2.8900001 8.3100004 0.46000001
-2.8900001 8.3100004 0.56
-2.8900001 8.3100004 0.66000003
-2.8900001 8.3100004 0.75999999
-2.8900001 8.3100004 0.86000001
-2.8900001 8.3100004 0.95999998
-2.8900001 8.3100004 1.0599999
-2.8900001 8.3100004 1.16
-2.8900001 8.3100004 1.26
-2.8900001 8.3100004 1.36
-2.8900001 8.3100004 1.46
-2.8900001 8.3100004 1.5599999
-2.8900001 8.3100004 1.66
-2.8900001 8.3100004 1.76
-2.8900001 8.3100004 1.86
-2.8900001 8.3100004 1.96
-2.8900001 8.3100004 2.0599999
-2.8900001 8.3100004 2.1600001
-2.8900001 8.3100004 2.26
-2.8900001 8.3100004 2.3599999
-2.8900001 8.3100004 2.46
-2.8900001 8.3100004 2.5599999
-2.8900001 8.3100004 2.6600001
-2.8900001 8.3100004 2.76
-2.8900001 8.4099998 -2.9400001
-2.8900001 8.4099998 -2.8399999
-2.8900001 8.4099998 -2.74
-2.8900001 8.4099998 -2.6400001
-2.8900001 8.4099998 -2.54
-2.8900001 8.4099998 -2.4400001
-2.8900001 8.4099998 -2.3399999
-2.8900001 8.4099998 -2.24
-2.8900001 8.4099998 -2.1400001
-2.8900001 8.4099998 -2.04
-2.8900001 8.4099998 -1.9400001
-2.8900001 8.4099998 -1.84
-2.8900001 8.4099998 -1.74
-2.8900001 8.4099998 -1.64
-2.8900001 8.4099998 -1.54
-2.8900001 8.4099998 -1.4400001
-2.8900001 8.4099998 -1.34
-2.8900001 8.4099998 -1.24
-2.8900001 8.4099998 -1.14
-2.8900001 8.4099998 -1.04
-2.8900001 8.4099998 -0.94
-2.8900001 8.4099998 -0.83999997
-2.8900001 8.4099998 -0.74000001
-2.8900001 8.4099998 -0.63999999
-2.8900001 8.4099998 -0.54000002
-2.8900001 8.4099998 -0.44
-2.8900001 8.4099998 -0.34
-2.8900001 8.4099998 -0.23999999
-2.8900001 8.4099998 -0.14
-2.8900001 8.4099998 -0.039999999
-2.8900001 8.4099998 0.059999999
-2.8900001 8.4099998 0.16
-2.8900001 8.4099998 0.25999999
-2.8900001 8.4099998 0.36000001
-2.8900001 8.4099998 0.46000001
-2.8900001 8.4099998 0.56
-2.8900001 8.4099998 0.66000003
-2.8900001 8.4099998 0.75999999
-2.8900001 8.4099998 0.86000001
-2.8900001 8.4099998 0.95999998
-2.8900001 8.4099998 1.0599999
-2.8900001 8.4099998 1.16
-2.8900001 8.4099998 1.26
-2.8900001 8.4099998 1.36
-2.8900001 8.4099998 1.46
-2.8900001 8.4099998 1.5599999
-2.8900001 8.4099998 1.66
-2.8900001 8.4099998 1.76
-2.8900001 8.4099998 1.86
-2.8900001 8.4099998 1.96
-2.8900001 8.4099998 2.0599999
-2.8900001 8.4099998 2.1600001
-2.8900001 8.4099998 2.26
-2.8900001 8.4099998 2.3599999
-2.8900001 8.4099998 2.46
-2.8900001 8.4099998 2.5599999
-2.8900001 8.4099998 2.6600001
-2.8900001 8.4099998 2.76
-2.8900001 8.4099998 2.8599999
-2.8900001 8.4099998 2.96
-2.8900001 8.5100002 -2.9400001
-2.8900001 8.5100002 -2.8399999
-2.8900001 8.5100002 -2.74
-2.8900001 8.5100002 -2.6400001
-2.8900001 8.5100002 -2.54
-2.8900001 8.5100002 -2.4400001
-2.8900001 8.5100002 -2.3399999
-2.8900001 8.5100002 -2.24
-2.8900001 8.5100002 -2.1400001
-2.8900001 8.5100002 -2.04
-2.8900001 8.5100002 -1.9400001
-2.8900001 8.5100002 -1.84
-2.8900001 8.5100002 -1.74
-2.8900001 8.5100002 -1.64
-2.8900001 8.5100002 -1.54
-2.8900001 8.5100002 -1.4400001
-2.8900001 8.5100002 -1.34
-2.8900001 8.5100002 -1.24
-2.8900001 8.5100002 -1.14
-2.8900001 8.5100002 -1.04
-2.8900001 8.5100002 -0.94
-2.8900001 8.5100002 -0.83999997
-2.8900001 8.5100002 -0.74000001
-2.8900001 8.5100002 -0.63999999
-2.8900001 8.5100002 -0.54000002
-2.8900001 8.5100002 -0.44
-2.8900001 8.5100002 -0.34
-2.8900001 8.5100002 -0.23999999
-2.8900001 8.5100002 -0.14
-2.8900001 8.5100002 -0.039999999
-2.8900001 8.5100002 0.059999999
-2.8900001 8.5100002 0.16
-2.8900001 8.5100002 0.25999999
-2.8900001 8.5100002 0.36000001
-2.8900001 8.5100002 0.46000001
-2.8900001 8.6099997 -2.9400001
-2.8900001 8.6099997 -2.8399999
-2.8900001 8.6099997 -2.74
-2.8900001 8.6099997 -2.6400001
-2.8900001 8.6099997 -2.54
-2.8900001 8.6099997 -2.4400001
-2.8900001 8.6099997 -2.3399999
-2.8900001 8.6099997 -2.24
-2.8900001 8.6099997 -2.1400001
-2.8900001 8.6099997 -2.04
-2.8900001 8.6099997 -1.9400001
-2.8900001 8.6099997 -1.84
-2.8900001 8.6099997 -1.74
-2.8900001 8.6099997 -1.64
-2.8900001 8.6099997 -1.54
-2.8900001 8.6099997 -1.4400001
-2.8900001 8.6099997 -1.34
-2.8900001 8.6099997 -1.24
-2.8900001 8.6099997 -1.14
-2.8900001 8.6099997 -1.04
-2.8900001 8.6099997 -0.94
-2.8900001 8.6099997 -0.83999997
-2.8900001 8.6099997 -0.74000001
-2.8900001 8.6099997 -0.63999999
-2.8900001 8.6099997 -0.54000002
-2.8900001 8.6099997 -0.44
-2.8900001 8.6099997 -0.34
-2.8900001 8.6099997 -0.23999999
-2.8900001 8.6099997 -0.14
-2.8900001 8.6099997 -0.039999999
-2.8900001 8.6099997 0.059999999
-2.8900001 8.71 -2.9400001
-2.8900001 8.71 -2.8399999
-2.8900001 8.71 -2.74
-2.8900001 8.71 -2.6400001
-2.8900001 8.71 -2.54
-2.8900001 8.71 -2.4400001
-2.8900001 8.71 -2.3399999
-2.8900001 8.71 -2.24
-2.8900001 8.71 -2.1400001
-2.8900001 8.71 -2.04
-2.8900001 8.71 -1.9400001
-2.8900001 8.71 -1.84
-2.8900001 8.71 -1.74
-2.8900001 8.71 -1.64
-2.8900001 8.71 -1.54
-2.8900001 8.71 -1.4400001
-2.8900001 8.71 -1.34
-2.8900001 8.71 -1.24
-2.8900001 8.71 -1.14
-2.8900001 8.71 -1.04
-2.8900001 8.71 -0.94
-2.8900001 8.71 -0.83999997
-2.8900001 8.71 -0.74000001
-2.8900001 8.71 -0.63999999
-2.8900001 8.71 -0.54000002
-2.8900001 8.71 -0.44
-2.8900001 8.71 -0.34
-2.8900001 8.71 -0.23999999
-2.8900001 8.71 -0.14
-2.8900001 8.71 -0.039999999
-2.8900001 8.71 0.059999999
-2.8900001 8.71 0.16
-2.8900001 8.71 0.25999999
-2.8900001 8.71 0.36000001
-2.8900001 8.71 0.46000001
-2.8900001 8.71 0.56
-2.8900001 8.8100004 -2.9400001
-2.8900001 8.8100004 -2.8399999
-2.8900001 8.8100004 -2.74
-2.8900001 8.8100004 -2.6400001
-2.8900001 8.8100004 -2.54
-2.8900001 8.8100004 -2.4400001
-2.8900001 8.8100004 -2.3399999
-2.8900001 8.8100004 -2.24
-2.8900001 8.8100004 -2.1400001
-2.8900001 8.8100004 -2.04
-2.8900001 8.8100004 -1.9400001
-2.8900001 8.8100004 -1.84
-2.8900001 8.8100004 -1.74
-2.8900001 8.8100004 -1.64
-2.8900001 8.8100004 -1.54
-2.8900001 8.8100004 -1.4400001
-2.8900001 8.8100004 -1.34
-2.8900001 8.8100004 -1.24
-2.8900001 8.8100004 -1.14
-2.8900001 8.8100004 -1.04
-2.8900001 8.8100004 -0.94
-2.8900001 8.8100004 -0.83999997
-2.8900001 8.8100004 -0.74000001
-2.8900001 8.8100004 -0.63999999
-2.8900001 8.8100004 -0.54000002
-2.8900001 8.8100004 -0.44
-2.8900001 8.8100004 -0.34
-2.8900001 8.8100004 -0.23999999
-2.8900001 8.8100004 -0.14
-2.8900001 8.8100004 -0.039999999
-2.8900001 8.8100004 0.059999999
-2.8900001 8.8100004 0.16
-2.8900001 8.8100004 0.25999999
-2.8900001 8.8100004 0.36000001
-2.8900001 8.8100004 0.46000001
-2.8900001 8.8100004 0.56
-2.8900001 8.8100004 0.66000003
-2.8900001 8.8100004 0.75999999
-2.8900001 8.8100004 0.86000001
-2.8900001 8.8100004 0.95999998
-2.8900001 8.8100004 1.0599999
-2.8900001 8.8100004 1.16
-2.8900001 8.8100004 1.26
-2.8900001 8.8100004 1.36
-2.8900001 8.8100004 1.46
-2.8900001 8.8100004 1.5599999
-2.8900001 8.8100004 1.66
-2.8900001 8.8100004 1.76
-2.8900001 8.9099998 -2.9400001
-2.8900001 8.9099998 -2.8399999
-2.8900001 8.9099998 -2.74
-2.8900001 8.9099998 -2.6400001
-2.8900001 8.9099998 -2.54
-2.8900001 8.9099998 -2.4400001
-2.8900001 8.9099998 -2.3399999
-2.8900001 8.9099998 -2.24
-2.8900001 8.9099998 -2.1400001
-2.8900001 8.9099998 -2.04
-2.8900001 8.9099998 -1.9400001
-2.8900001 8.9099998 -1.84
-2.8900001 8.9099998 -1.74
-2.8900001 8.9099998 -1.64
-2.8900001 8.9099998 -1.54
-2.8900001 8.9099998 -1.4400001
-2.8900001 8.9099998 -1.34
-2.8900001 8.9099998 -1.24
-2.8900001 8.9099998 -1.14
-2.8900001 8.9099998 -1.04
-2.8900001 8.9099998 -0.94
-2.8900001 8.9099998 -0.83999997
-2.8900001 8.9099998 -0.74000001
-2.8900001 8.9099998 -0.63999999
-2.8900001 8.9099998 -0.54000002
-2.8900001 8.9099998 -0.44
-2.8900001 8.9099998 -0.34
-2.8900001 8.9099998 -0.23999999
-2.8900001 8.9099998 -0.14
-2.8900001 8.9099998 -0.039999999
-2.8900001 8.9099998 0.059999999
-2.8900001 8.9099998 0.16
-2.8900001 8.9099998 0.25999999
-2.8900001 8.9099998 0.36000001
-2.8900001 8.9099998 0.46000001
-2.8900001 8.9099998 0.56
-2.8900001 8.9099998 0.66000003
-2.8900001 8.9099998 0.75999999
-2.8900001 8.9099998 0.86000001
-2.8900001 8.9099998 0.95999998
-2.8900001 8.9099998 1.0599999
-2.8900001 8.9099998 1.16
-2.8900001 9.0100002 -2.9400001
-2.8900001 9.0100002 -2.8399999
-2.8900001 9.0100002 -2.74
-2.8900001 9.0100002 -2.6400001
-2.8900001 9.0100002 -2.54
-2.8900001 9.0100002 -2.4400001
-2.8900001 9.0100002 -2.3399999
-2.8900001 9.0100002 -2.24
-2.8900001 9.0100002 -2.1400001
-2.8900001 9.0100002 -2.04
-2.8900001 9.0100002 -1.9400001
-2.8900001 9.0100002 -1.84
-2.8900001 9.0100002 -1.74
-2.8900001 9.0100002 -1.64
-2.8900001 9.0100002 -1.54
-2.8900001 9.0100002 -1.4400001
-2.8900001 9.0100002 -1.34
-2.8900001 9.0100002 -1.24
-2.8900001 9.0100002 -1.14
-2.8900001 9.0100002 -1.04
-2.8900001 9.0100002 -0.94
-2.8900001 9.0100002 -0.83999997
-2.8900001 9.0100002 -0.74000001
-2.8900001 9.0100002 -0.63999999
-2.8900001 9.0100002 -0.54000002
-2.8900001 9.0100002 -0.44
-2.8900001 9.0100002 -0.34
-2.8900001 9.0100002 -0.23999999
-2.8900001 9.0100002 -0.14
-2.8900001 9.0100002 -0.039999999
-2.8900001 9.0100002 0.059999999
-2.8900001 9.0100002 0.16
-2.8900001 9.0100002 0.25999999
-2.8900001 9.0100002 0.36000001
-2.8900001 9.0100002 0.46000001
-2.8900001 9.0100002 0.56
-2.8900001 9.0100002 0.66000003
-2.8900001 9.0100002 0.75999999
-2.8900001 9.0100002 0.86000001
-2.8900001 9.0100002 0.95999998
-2.8900001 9.0100002 1.0599999
-2.8900001 9.0100002 1.16
-2.8900001 9.0100002 1.26
-2.8900001 9.0100002 1.36
-2.8900001 9.0100002 1.46
-2.8900001 9.0100002 1.5599999
-2.8900001 9.0100002 1.66
-2.8900001 9.0100002 1.76
-2.8900001 9.0100002 1.86
-2.8900001 9.0100002 1.96
-2.8900001 9.0100002 2.0599999
-2.8900001 9.0100002 2.1600001
-2.8900001 9.0100002 2.26
-2.8900001 9.0100002 2.3599999
-2.8900001 9.0100002 2.46
-2.8900001 9.0100002 2.5599999
-2.79 8.1099997 -2.9400001
-2.79 8.1099997 -2.8399999
-2.79 8.1099997 -2.74
-2.79 8.1099997 -2.6400001
-2.79 8.1099997 -2.54
-2.79 8.1099997 -2.4400001
-2.79 8.1099997 -2.3399999
-2.79 8.1099997 -2.24
-2.79 8.1099997 -2.1400001
-2.79 8.1099997 -2.04
-2.79 8.1099997 -1.9400001
-2.79 8.1099997 -1.84
-2.79 8.1099997 -1.74
-2.79 8.1099997 -1.64
-2.79 8.1099997 -1.54
-2.79 8.1099997 -1.4400001
-2.79 8.1099997 -1.34
-2.79 8.1099997 -1.24
-2.79 8.1099997 -1.14
-2.79 8.1099997 -1.04
-2.79 8.1099997 -0.94
-2.79 8.1099997 -0.83999997
-2.79 8.1099997 -0.74000001
-2.79 8.1099997 -0.63999999
-2.79 8.1099997 -0.54000002
-2.79 8.1099997 -0.44
-2.79 8.1099997 -0.34
-2.79 8.1099997 -0.23999999
-2.79 8.1099997 -0.14
-2.79 8.1099997 -0.039999999
-2.79 8.1099997 0.059999999
-2.79 8.1099997 0.16
-2.79 8.1099997 0.25999999
-2.79 8.1099997 0.36000001
-2.79 8.1099997 0.46000001
-2.79 8.1099997 0.56
-2.79 8.1099997 0.66000003
-2.79 8.1099997 0.75999999
-2.79 8.1099997 0.86000001
-2.79 8.1099997 0.95999998
-2.79 8.1099997 1.0599999
-2.79 8.21 -2.9400001
-2.79 8.21 -2.8399999
-2.79 8.21 -2.74
-2.79 8.21 -2.6400001
-2.79 8.21 -2.54
-2.79 8.21 -2.4400001
-2.79 8.21 -2.3399999
-2.79 8.21 -2.24
-2.79 8.21 -2.1400001
-2.79 8.21 -2.04
-2.79 8.21 -1.9400001
-2.79 8.21 -1.84
-2.79 8.21 -1.74
-2.79 8.21 -1.64
-2.79 8.21 -1.54
-2.79 8.21 -1.4400001
-2.79 8.21 -1.34
-2.79 8.21 -1.24
-2.79 8.21 -1.14
-2.79 8.21 -1.04
-2.79 8.21 -0.94
-2.79 8.21 -0.83999997
-2.79 8.21 -0.74000001
-2.79 8.21 -0.63999999
-2.79 8.21 -0.54000002
-2.79 8.21 -0.44
-2.79 8.21 -0.34
-2.79 8.21 -0.23999999
-2.79 8.21 -0.14
-2.79 8.21 -0.039999999
-2.79 8.21 0.059999999
-2.79 8.21 0.16
-2.79 8.21 0.25999999
-2.79 8.21 0.36000001
-2.79 8.21 0.46000001
-2.79 8.21 0.56
-2.79 8.21 0.66000003
-2.79 8.3100004 -2.9400001
-2.79 8.3100004 -2.8399999
-2.79 8.3100004 -2.74
-2.79 8.3100004 -2.6400001
-2.79 8.3100004 -2.54
-2.79 8.3100004 -2.4400001
-2.79 8.3100004 -2.3399999
-2.79 8.3100004 -2.24
-2.79 8.3100004 -2.1400001
-2.79 8.3100004 -2.04
-2.79 8.3100004 -1.9400001
-2.79 8.3100004 -1.84
-2.79 8.3100004 -1.74
-2.79 8.3100004 -1.64
-2.79 8.3100004 -1.54
-2.79 8.3100004 -1.4400001
-2.79 8.3100004 -1.34
-2.79 8.3100004 -1.24
-2.79 8.3100004 -1.14
-2.79 8.3100004 -1.04
-2.79 8.3100004 -0.94
-2.79 8.3100004 -0.83999997
-2.79 8.3100004 -0.74000001
-2.79 8.3100004 -0.63999999
-2.79 8.3100004 -0.54000002
-2.79 8.3100004 -0.44
-2.79 8.3100004 -0.34
-2.79 8.3100004 -0.23999999
-2.79 8.3100004 -0.14
-2.79 8.3100004 -0.039999999
-2.79 8.3100004 0.059999999
-2.79 8.3100004 0.16
-2.79 8.3100004 0.25999999
-2.79 8.3100004 0.36000001
-2.79 8.3100004 0.46000001
-2.79 8.3100004 0.56
-2.79 8.3100004 0.66000003
-2.79 8.3100004 0.75999999
-2.79 8.3100004 0.86000001
-2.79 8.3100004 0.95999998
-2.79 8.3100004 1.0599999
-2.79 8.3100004 1.16
-2.79 8.3100004 1.26
-2.79 8.3100004 1.36
-2.79 8.3100004 1.46
-2.79 8.3100004 1.5599999
-2.79 8.3100004 1.66
-2.79 8.3100004 1.76
-2.79 8.3100004 1.86
-2.79 8.3100004 1.96
-2.79 8.3100004 2.0599999
-2.79 8.3100004 2.1600001
-2.79 8.3100004 2.26
-2.79 8.3100004 2.3599999
-2.79 8.3100004 2.46
-2.79 8.3100004 2.5599999
-2.79 8.3100004 2.6600001
-2.79 8.3100004 2.76
-2.79 8.4099998 -2.9400001
-2.79 8.4099998 -2.8399999
-2.79 8.4099998 -2.74
-2.79 8.4099998 -2.6400001
-2.79 8.4099998 -2.54
-2.79 8.4099998 -2.4400001
-2.79 8.4099998 -2.3399999
-2.79 8.4099998 -2.24
-2.79 8.4099998 -2.1400001
-2.79 8.4099998 -2.04
-2.79 8.4099998 -1.9400001
-2.79 8.4099998 -1.84
-2.79 8.4099998 -1.74
-2.79 8.4099998 -1.64
-2.79 8.4099998 -1.54
-2.79 8.4099998 -1.4400001
-2.79 8.4099998 -1.34
-2.79 8.4099998 -1.24
-2.79 8.4099998 -1.14
-2.79 8.4099998 -1.04
-2.79 8.4099998 -0.94
-2.79 8.4099998 -0.83999997
-2.79 8.4099998 -0.74000001
-2.79 8.4099998 -0.63999999
-2.79 8.4099998 -0.54000002
-2.79 8.4099998 -0.44
-2.79 8.4099998 -0.34
-2.79 8.4099998 -0.23999999
-2.79 8.4099998 -0.14
-2.79 8.4099998 -0.039999999
-2.79 8.4099998 0.059999999
-2.79 8.4099998 0.16
-2.79 8.4099998 0.25999999
-2.79 8.4099998 0.36000001
-2.79 8.4099998 0.46000001
-2.79 8.4099998 0.56
-2.79 8.4099998 0.66000003
-2.79 8.4099998 0.75999999
-2.79 8.4099998 0.86000001
-2.79 8.5100002 -2.9400001
-2.79 8.5100002 -2.8399999
-2.79 8.5100002 -2.74
-2.79 8.5100002 -2.6400001
-2.79 8.5100002 -2.54
-2.79 8.5100002 -2.4400001
-2.79 8.5100002 -2.3399999
-2.79 8.5100002 -2.24
-2.79 8.5100002 -2.1400001
-2.79 8.5100002 -2.04
-2.79 8.5100002 -1.9400001
-2.79 8.5100002 -1.84
-2.79 8.5100002 -1.74
-2.79 8.5100002 -1.64
-2.79 8.5100002 -1.54
-2.79 8.5100002 -1.4400001
-2.79 8.5100002 -1.34
-2.79 8.5100002 -1.24
-2.79 8.5100002 -1.14
-2.79 8.5100002 -1.04
-2.79 8.5100002 -0.94
-2.79 8.5100002 -0.83999997
-2.79 8.5100002 -0.74000001
-2.79 8.5100002 -0.63999999
-2.79 8.5100002 -0.54000002
-2.79 8.5100002 -0.44
-2.79 8.5100002 -0.34
-2.79 8.5100002 -0.23999999
-2.79 8.5100002 -0.14
-2.79 8.5100002 -0.039999999
-2.79 8.5100002 0.059999999
-2.79 8.5100002 0.16
-2.79 8.5100002 0.25999999
-2.79 8.5100002 0.36000001
-2.79 8.5100002 0.46000001
-2.79 8.5100002 0.56
-2.79 8.5100002 0.66000003
-2.79 8.5100002 0.75999999
-2.79 8.5100002 0.86000001
-2.79 8.5100002 0.95999998
-2.79 8.5100002 1.0599999
-2.79 8.5100002 1.16
-2.79 8.5100002 1.26
-2.79 8.5100002 1.36
-2.79 8.5100002 1.46
-2.79 8.5100002 1.5599999
-2.79 8.5100002 1.66
-2.79 8.5100002 1.76
-2.79 8.5100002 1.86
-2.79 8.5100002 1.96
-2.79 8.5100002 2.0599999
-2.79 8.5100002 2.1600001
-2.79 8.5100002 2.26
-2.79 8.5100002 2.3599999
-2.79 8.5100002 2.46
-2.79 8.5100002 2.5599999
-2.79 8.5100002 2.6600001
-2.79 8.5100002 2.76
-2.79 8.5100002 2.8599999
-2.79 8.5100002 2.96
-2.79 8.6099997 -2.9400001
-2.79 8.6099997 -2.8399999
-2.79 8.6099997 -2.74
-2.79 8.6099997 -2.6400001
-2.79 8.6099997 -2.54
-2.79 8.6099997 -2.4400001
-2.79 8.6099997 -2.3399999
-2.79 8.6099997 -2.24
-2.79 8.6099997 -2.1400001
-2.79 8.6099997 -2.04
-2.79 8.6099997 -1.9400001
-2.79 8.6099997 -1.84
-2.79 8.6099997 -1.74
-2.79 8.6099997 -1.64
-2.79 8.6099997 -1.54
-2.79 8.6099997 -1.4400001
-2.79 8.6099997 -1.34
-2.79 8.6099997 -1.24
-2.79 8.6099997 -1.14
-2.79 8.6099997 -1.04
-2.79 8.6099997 -0.94
-2.79 8.6099997 -0.83999997
-2.79 8.6099997 -0.74000001
-2.79 8.6099997 -0.63999999
-2.79 8.6099997 -0.54000002
-2.79 8.6099997 -0.44
-2.79 8.6099997 -0.34
-2.79 8.6099997 -0.23999999
-2.79 8.6099997 -0.14
-2.79 8.6099997 -0.039999999
-2.79 8.6099997 0.059999999
-2.79 8.6099997 0.16
-2.79 8.6099997 0.25999999
-2.79 8.6099997 0.36000001
-2.79 8.6099997 0.46000001
-2.79 8.6099997 0.56
-2.79 8.6099997 0.66000003
-2.79 8.6099997 0.75999999
-2.79 8.6099997 0.86000001
-2.79 8.6099997 0.95999998
-2.79 8.71 -2.9400001
-2.79 8.71 -2.8399999
-2.79 8.71 -2.74
-2.79 8.71 -2.6400001
-2.79 8.71 -2.54
-2.79 8.71 -2.4400001
-2.79 8.71 -2.3399999
-2.79 8.71 -2.24
-2.79 8.71 -2.1400001
-2.79 8.71 -2.04
-2.79 8.71 -1.9400001
-2.79 8.71 -1.84
-2.79 8.71 -1.74
-2.79 8.71 -1.64
-2.79 8.71 -1.54
-2.79 8.71 -1.4400001
-2.79 8.71 -1.34
-2.79 8.71 -1.24
-2.79 8.71 -1.14
-2.79 8.71 -1.04
-2.79 8.71 -0.94
-2.79 8.71 -0.83999997
-2.79 8.71 -0.74000001
-2.79 8.71 -0.63999999
-2.79 8.71 -0.54000002
-2.79 8.71 -0.44
-2.79 8.71 -0.34
-2.79 8.71 -0.23999999
-2.79 8.71 -0.14
-2.79 8.71 -0.039999999
-2.79 8.71 0.059999999
-2.79 8.71 0.16
-2.79 8.71 0.25999999
-2.79 8.71 0.36000001
-2.79 8.71 0.46000001
-2.79 8.71 0.56
-2.79 8.71 0.66000003
-2.79 8.71 0.75999999
-2.79 8.71 0.86000001
-2.79 8.71 0.95999998
-2.79 8.71 1.0599999
-2.79 8.71 1.16
-2.79 8.71 1.26
-2.79 8.71 1.36
-2.79 8.71 1.46
-2.79 8.71 1.5599999
-2.79 8.71 1.66
-2.79 8.71 1.76
-2.79 8.71 1.86
-2.79 8.71 1.96
-2.79 8.8100004 -2.9400001
-2.79 8.8100004 -2.8399999
-2.79 8.8100004 -2.74
-2.79 8.8100004 -2.6400001
-2.79 8.8100004 -2.54
-2.79 8.8100004 -2.4400001
-2.79 8.8100004 -2.3399999
-2.79 8.8100004 -2.24
-2.79 8.8100004 -2.1400001
-2.79 8.8100004 -2.04
-2.79 8.8100004 -1.9400001
-2.79 8.8100004 -1.84
-2.79 8.8100004 -1.74
-2.79 8.8100004 -1.64
-2.79 8.8100004 -1.54
-2.79 8.8100004 -1.4400001
-2.79 8.8100004 -1.34
-2.79 8.8100004 -1.24
-2.79 8.8100004 -1.14
-2.79 8.8100004 -1.04
-2.79 8.8100004 -0.94
-2.79 8.8100004 -0.83999997
-2.79 8.8100004 -0.74000001
-2.79 8.8100004 -0.63999999
-2.79 8.8100004 -0.54000002
-2.79 8.8100004 -0.44
-2.79 8.8100004 -0.34
-2.79 8.8100004 -0.23999999
-2.79 8.8100004 -0.14
-2.79 8.8100004 -0.039999999
-2.79 8.8100004 0.059999999
-2.79 8.8100004 0.16
-2.79 8.8100004 0.25999999
-2.79 8.8100004 0.36000001
-2.79 8.8100004 0.46000001
-2.79 8.8100004 0.56
-2.79 8.8100004 0.66000003
-2.79 8.8100004 0.75999999
-2.79 8.8100004 0.86000001
-2.79 8.8100004 0.95999998
-2.79 8.8100004 1.0599999
-2.79 8.8100004 1.16
-2.79 8.8100004 1.26
-2.79 8.8100004 1.36
-2.79 8.8100004 1.46
-2.79 8.8100004 1.5599999
-2.79 8.8100004 1.66
-2.79 8.8100004 1.76
-2.79 8.8100004 1.86
-2.79 8.8100004 1.96
-2.79 8.8100004 2.0599999
-2.79 8.8100004 2.1600001
-2.79 8.8100004 2.26
-2.79 8.8100004 2.3599999
-2.79 8.8100004 2.46
-2.79 8.8100004 2.5599999
-2.79 8.9099998 -2.9400001
-2.79 8.9099998 -2.8399999
-2.79 8.9099998 -2.74
-2.79 8.9099998 -2.6400001
-2.79 8.9099998 -2.54
-2.79 8.9099998 -2.4400001
-2.79 8.9099998 -2.3399999
-2.79 8.9099998 -2.24
-2.79 8.9099998 -2.1400001
-2.79 8.9099998 -2.04
-2.79 8.9099998 -1.9400001
-2.79 8.9099998 -1.84
-2.79 8.9099998 -1.74
-2.79 8.9099998 -1.64
-2.79 8.9099998 -1.54
-2.79 8.9099998 -1.4400001
-2.79 8.9099998 -1.34
-2.79 8.9099998 -1.24
-2.79 8.9099998 -1.14
-2.79 8.9099998 -1.04
-2.79 8.9099998 -0.94
-2.79 8.9099998 -0.83999997
-2.79 8.9099998 -0.74000001
-2.79 8.9099998 -0.63999999
-2.79 8.9099998 -0.54000002
-2.79 8.9099998 -0.44
-2.79 8.9099998 -0.34
-2.79 8.9099998 -0.23999999
-2.79 8.9099998 -0.14
-2.79 8.9099998 -0.039999999
-2.79 8.9099998 0.059999999
-2.79 8.9099998 0.16
-2.79 8.9099998 0.25999999
-2.79 8.9099998 0.36000001
-2.79 8.9099998 0.46000001
-2.79 8.9099998 0.56
-2.79 8.9099998 0.66000003
-2.79 8.9099998 0.75999999
-2.79 8.9099998 0.86000001
-2.79 8.9099998 0.95999998
-2.79 8.9099998 1.0599999
-2.79 8.9099998 1.16
-2.79 9.0100002 -2.9400001
-2.79 9.0100002 -2.8399999
-2.79 9.0100002 -2.74
-2.79 9.0100002 -2.6400001
-2.79 9.0100002 -2.54
-2.79 9.0100002 -2.4400001
-2.79 9.0100002 -2.3399999
-2.79 9.0100002 -2.24
-2.79 9.0100002 -2.1400001
-2.79 9.0100002 -2.04
-2.79 9.0100002 -1.9400001
-2.79 9.0100002 -1.84
-2.79 9.0100002 -1.74
-2.79 9.0100002 -1.64
-2.79 9.0100002 -1.54
-2.79 9.0100002 -1.4400001
-2.79 9.0100002 -1.34
-2.79 9.0100002 -1.24
-2.79 9.0100002 -1.14
-2.79 9.0100002 -1.04
-2.79 9.0100002 -0.94
-2.79 9.0100002 -0.83999997
-2.79 9.0100002 -0.74000001
-2.79 9.0100002 -0.63999999
-2.79 9.0100002 -0.54000002
-2.79 9.0100002 -0.44
-2.79 9.0100002 -0.34
-2.79 9.0100002 -0.23999999
-2.79 9.0100002 -0.14
-2.79 9.0100002 -0.039999999
-2.79 9.0100002 0.059999999
-2.79 9.0100002 0.16
-2.79 9.0100002 0.25999999
-2.79 9.0100002 0.36000001
-2.79 9.0100002 0.46000001
-2.79 9.0100002 0.56
-2.79 9.0100002 0.66000003
-2.79 9.0100002 0.75999999
-2.79 9.0100002 0.86000001
-2.79 9.0100002 0.95999998
-2.79 9.0100002 1.0599999
-2.79 9.0100002 1.16
-2.79 9.0100002 1.26
-2.6900001 8.1099997 -2.9400001
-2.6900001 8.1099997 -2.8399999
-2.6900001 8.1099997 -2.74
-2.6900001 8.1099997 -2.6400001
-2.6900001 8.1099997 -2.54
-2.6900001 8.1099997 -2.4400001
-2.6900001 8.1099997 -2.3399999
-2.6900001 8.1099997 -2.24
-2.6900001 8.1099997 -2.1400001
-2.6900001 8.1099997 -2.04
-2.6900001 8.1099997 -1.9400001
-2.6900001 8.1099997 -1.84
-2.6900001 8.1099997 -1.74
-2.6900001 8.1099997 -1.64
-2.6900001 8.1099997 -1.54
-2.6900001 8.1099997 -1.4400001
-2.6900001 8.1099997 -1.34
-2.6900001 8.1099997 -1.24
-2.6900001 8.1099997 -1.14
-2.6900001 8.1099997 -1.04
-2.6900001 8.1099997 -0.94
-2.6900001 8.1099997 -0.83999997
-2.6900001 8.1099997 -0.74000001
-2.6900001 8.1099997 -0.63999999
-2.6900001 8.1099997 -0.54000002
-2.6900001 8.1099997 -0.44
-2.6900001 8.1099997 -0.34
-2.6900001 8.1099997 -0.23999999
-2.6900001 8.1099997 -0.14
-2.6900001 8.1099997 -0.039999999
-2.6900001 8.1099997 0.059999999
-2.6900001 8.1099997 0.16
-2.6900001 8.1099997 0.25999999
-2.6900001 8.1099997 0.36000001
-2.6900001 8.1099997 0.46000001
-2.6900001 8.1099997 0.56
-2.6900001 8.1099997 0.66000003
-2.6900001 8.1099997 0.75999999
-2.6900001 8.1099997 0.86000001
-2.6900001 8.1099997 0.95999998
-2.6900001 8.1099997 1.0599999
-2.6900001 8.1099997 1.16
-2.6900001 8.1099997 1.26
-2.6900001 8.1099997 1.36
-2.6900001 8.1099997 1.46
-2.6900001 8.1099997 1.5599999
-2.6900001 8.1099997 1.66
-2.6900001 8.1099997 1.76
-2.6900001 8.1099997 1.86
-2.6900001 8.1099997 1.96
-2.6900001 8.1099997 2.0599999
-2.6900001 8.1099997 2.1600001
-2.6900001 8.1099997 2.26
-2.6900001 8.1099997 2.3599999
-2.6900001 8.1099997 2.46
-2.6900001 8.1099997 2.5599999
-2.6900001 8.1099997 2.6600001
-2.6900001 8.1099997 2.76
-2.6900001 8.1099997 2.8599999
-2.6900001 8.21 -2.9400001
-2.6900001 8.21 -2.8399999
-2.6900001 8.21 -2.74
-2.6900001 8.21 -2.6400001
-2.6900001 8.21 -2.54
-2.6900001 8.21 -2.4400001
-2.6900001 8.21 -2.3399999
-2.6900001 8.21 -2.24
-2.6900001 8.21 -2.1400001
-2.6900001 8.21 -2.04
-2.6900001 8.21 -1.9400001
-2.6900001 8.21 -1.84
-2.6900001 8.21 -1.74
-2.6900001 8.21 -1.64
-2.6900001 8.21 -1.54
-2.6900001 8.21 -1.4400001
-2.6900001 8.21 -1.34
-2.6900001 8.21 -1.24
-2.6900001 8.21 -1.14
-2.6900001 8.21 -1.04
-2.6900001 8.21 -0.94
-2.6900001 8.21 -0.83999997
-2.6900001 8.21 -0.74000001
-2.6900001 8.21 -0.63999999
-2.6900001 8.21 -0.54000002
-2.6900001 8.21 -0.44
-2.6900001 8.21 -0.34
-2.6900001 8.21 -0.23999999
-2.6900001 8.21 -0.14
-2.6900001 8.21 -0.039999999
-2.6900001 8.21 0.059999999
-2.6900001 8.21 0.16
-2.6900001 8.21 0.25999999
-2.6900001 8.21 0.36000001
-2.6900001 8.21 0.46000001
-2.6900001 8.21 0.56
-2.6900001 8.21 0.66000003
-2.6900001 8.21 0.75999999
-2.6900001 8.21 0.86000001
-2.6900001 8.21 0.95999998
-2.6900001 8.21 1.0599999
-2.6900001 8.21 1.16
-2.6900001 8.21 1.26
-2.6900001 8.21 1.36
-2.6900001 8.21 1.46
-2.6900001 8.21 1.5599999
-2.6900001 8.21 1.66
-2.6900001 8.21 1.76
-2.6900001 8.21 1.86
-2.6900001 8.21 1.96
-2.6900001 8.21 2.0599999
-2.6900001 8.21 2.1600001
-2.6900001 8.21 2.26
-2.6900001 8.21 2.3599999
-2.6900001 8.21 2.46
-2.6900001 8.21 2.5599999
-2.6900001 8.21 2.6600001
-2.6900001 8.21 2.76
-2.6900001 8.3100004 -2.9400001
-2.6900001 8.3100004 -2.8399999
-2.6900001 8.3100004 -2.74
-2.6900001 8.3100004 -2.6400001
-2.6900001 8.3100004 -2.54
-2.6900001 8.3100004 -2.4400001
-2.6900001 8.3100004 -2.3399999
-2.6900001 8.3100004 -2.24
-2.6900001 8.3100004 -2.1400001
-2.6900001 8.3100004 -2.04
-2.6900001 8.3100004 -1.9400001
-2.6900001 8.3100004 -1.84
-2.6900001 8.3100004 -1.74
-2.6900001 8.3100004 -1.64
-2.6900001 8.3100004 -1.54
